# .PCD v0.7 - Point Cloud Data file format
VERSION 0.7
FIELDS x y z intensity
SIZE 4 4 4 4
TYPE F F F F
COUNT 1 1 1 1
WIDTH 500
HEIGHT 1
VIEWPOINT 0 0 0 1 0 0 0
POINTS 500
DATA ascii
1.28125 577.09375 197.9375 0
828.125 599.03125 491.375 0
358.6875 917.4375 842.5625 0
764.5 178.28125 879.53125 0
727.53125 525.84375 311.28125 0
15.34375 93.59375 373.1875 0
150.84375 169.875 1012.2188 0
456.375 121.9375 4.78125 0
9.125 386.9375 544.40625 0
584.875 616.1875 621.71875 0
170.21875 678.9375 461.59375 0
360.5625 58.40625 622.25 0
802.09375 821.84375 532.34375 0
309.1875 896.96875 744.09375 0
978.8125 947.90625 552.28125 0
145.75 473.15625 240.96875 0
882.90625 214.625 798.34375 0
863.875 1020.6875 1023.6563 0
626.15625 401.84375 272.59375 0
304.40625 860.28125 24.3125 0
384.875 94.84375 693.4375 0
57.5625 9 940.8125 0
282.5 279.4375 602 0
707.75 857.6875 743.90625 0
496.5625 210.28125 761.5625 0
479.6875 468.9375 971.90625 0
762.28125 110.875 613.40625 0
394.46875 752.625 623.5625 0
586.125 370 155.1875 0
230.5 435.34375 822.125 0
529.5 1013.7188 769.5625 0
353.84375 173.03125 673.0625 0
503.6875 65.0625 716.53125 0
516.90625 151.03125 972.34375 0
144.96875 926.8125 709.5 0
310.3125 436.78125 72.0625 0
989.78125 699.5625 156.90625 0
898.28125 841.375 596 0
195.9375 182.15625 836.78125 0
486.65625 159.28125 516 0
749.5625 415.3125 286.28125 0
582.375 698.59375 773.96875 0
739.21875 486.6875 125.96875 0
376.625 854.6875 35.9375 0
529.40625 678.875 436.4375 0
107.1875 972.09375 943.46875 0
562.71875 354.28125 483.03125 0
383.96875 867.28125 324.46875 0
467.03125 278.40625 1006.5313 0
304.9375 756.90625 580.875 0
200.6875 779.5625 859.5625 0
407.1875 512.90625 911.5 0
28.125 1018.4688 586.3125 0
51.71875 544.0625 198.71875 0
863.25 641.78125 673.375 0
202.59375 862.34375 126.28125 0
112.5625 760.9375 321.59375 0
963.625 292.9375 344.375 0
143.625 750.65625 854.625 0
724.96875 614.625 765.125 0
258.78125 147.9375 1.65625 0
62.46875 825.5625 873.0625 0
215.625 118.375 566.46875 0
14.59375 116.5 465.40625 0
770.25 702.59375 556.46875 0
75.65625 447.1875 206.78125 0
712.90625 297.3125 447.15625 0
238 591.71875 545.34375 0
643.75 164.03125 516.21875 0
986.125 712.4375 946.96875 0
194.5 344 182.625 0
1019.0313 468.40625 1021.9375 0
99.84375 640.15625 96.65625 0
448.21875 953.84375 49.59375 0
916.0625 296.96875 232.75 0
787.5 420.5625 206.8125 0
643.125 618.625 462.4375 0
477.53125 612.15625 649.9375 0
875.28125 848.65625 639.75 0
738.1875 579.3125 384.125 0
188.6875 755.59375 568.4375 0
926.78125 248.6875 193.46875 0
619.21875 715.25 598.625 0
359.71875 506.3125 82.3125 0
758.5 626.71875 635.25 0
707.6875 823.8125 152.6875 0
589.84375 888.53125 933.40625 0
629.4375 745.125 44.25 0
683.78125 999.9375 322.5625 0
582.84375 313.15625 178.09375 0
111.15625 889.875 871.625 0
762.15625 158.59375 334.75 0
81.25 78.4375 656.34375 0
839.65625 558.15625 459 0
418.78125 305.90625 476.71875 0
513.21875 156.3125 330.78125 0
755.6875 321.40625 846.5 0
982.0625 894.28125 742.40625 0
307.25 966.625 130.28125 0
67.3125 803.78125 537.15625 0
624.25 979.03125 74 0
896.625 669.53125 329.84375 0
107.3125 517.15625 232.53125 0
297.25 942.03125 564.375 0
678.6875 117.28125 504.34375 0
388.21875 508.71875 812.375 0
521.46875 391.53125 704.65625 0
544.90625 620.8125 404.65625 0
6.03125 724.84375 103.03125 0
638 883.9375 503.28125 0
765.25 508.8125 389.21875 0
804.1875 566.0625 365.65625 0
978.625 645.96875 180.8125 0
383.21875 134.78125 761.09375 0
974.53125 626.65625 28.5 0
337.75 57.25 654.53125 0
134.78125 867.375 885.03125 0
611.1875 738.9375 874.4375 0
15.03125 129.5 724.875 0
631.9375 222.78125 67.53125 0
172.96875 639.0625 349.15625 0
327.0625 376.375 676.84375 0
821.625 826.21875 539.15625 0
625.75 817.3125 922.1875 0
148.28125 645.28125 412.0625 0
259.78125 139.8125 875.6875 0
67.75 438.0625 587.09375 0
309.53125 561.1875 230.96875 0
318.8125 113.28125 827.40625 0
137.9375 291.0625 807 0
916.6875 808.5625 761.625 0
629.96875 369.78125 877.1875 0
233.96875 884.28125 234.9375 0
255.53125 555.40625 1008.4375 0
55.09375 83.375 537.25 0
437.03125 96.9375 265 0
912.90625 238.34375 150.0625 0
128.09375 953.96875 82.03125 0
48.21875 60.125 344.46875 0
936.625 408.15625 443.15625 0
968.84375 857.25 547.03125 0
862.28125 710.15625 407.21875 0
265.375 4.4375 538.1875 0
977.6875 408.25 246.875 0
599.59375 261.25 700.40625 0
967.9375 445.9375 911.5625 0
7.34375 963.53125 615.96875 0
805 590.5 145.84375 0
227.65625 392.1875 4.375 0
427.9375 84.21875 675.75 0
875.59375 66.40625 830.5 0
677.9375 708.0625 821.9375 0
542.84375 702.0625 146.1875 0
706.03125 745.34375 796.375 0
31.8125 889.5 659.96875 0
723.5 87.5 565.21875 0
970.625 60.1875 281.5625 0
148.65625 1005.3125 634.84375 0
299.25 944.59375 376.34375 0
711.1875 223.875 159.65625 0
246.3125 533.9375 923.90625 0
108.96875 924.28125 452.3125 0
82.03125 800.84375 175.90625 0
997.75 794.46875 891.25 0
215.6875 467.5625 3.84375 0
768.625 116.78125 414.40625 0
318.59375 1016.4063 39.5 0
258.125 193.8125 253.625 0
157.1875 635.1875 906.59375 0
961.59375 200.34375 798.34375 0
661.03125 672.5 930.9375 0
466.375 943.375 680.09375 0
154.375 651.59375 583.1875 0
432.15625 965.625 553.53125 0
592.4375 549.3125 261.40625 0
406.46875 358.65625 37.5 0
814.3125 201.21875 71.96875 0
398.75 604.90625 72.625 0
202.40625 159.625 659.78125 0
465.21875 618.78125 714.0625 0
451.875 700.875 406.03125 0
855.75 606.40625 204.375 0
972.21875 897 401.09375 0
1011.125 189.75 917.1875 0
588.21875 452.65625 642.375 0
725.5 50.8125 292.40625 0
266.4375 417.40625 916.78125 0
727.21875 745.90625 917.53125 0
403 406.9375 925.53125 0
316 397.40625 584.25 0
362.03125 751.28125 763.21875 0
754.03125 757.15625 142.65625 0
204.96875 279.125 696.75 0
932.96875 376.65625 530.0625 0
112 929.1875 207.9375 0
530.375 670.53125 449.03125 0
704.125 92.59375 81.46875 0
77.59375 28.46875 363.59375 0
314.59375 714 146.09375 0
404.3125 69.46875 691.9375 0
742.3125 203.46875 710.65625 0
630.46875 670.59375 557.03125 0
100.65625 558.4375 50.8125 0
997.9375 475.15625 993.21875 0
745.3125 543.6875 696.21875 0
709.40625 381.03125 397.9375 0
51.15625 829.1875 173.625 0
62.28125 318 803.28125 0
217.5625 329.625 496.28125 0
9.375 450.40625 520.03125 0
620.46875 776.71875 410.6875 0
358.1875 862.84375 964.90625 0
638.25 1021.1875 54.75 0
576.34375 884.25 396.03125 0
313.75 291.03125 27.34375 0
627.25 400.5625 19.0625 0
31.78125 466.625 878.5 0
959.21875 411.53125 744.71875 0
626.25 827.75 896.40625 0
596.5625 609.28125 80.90625 0
812.1875 473.28125 604.78125 0
603.5625 582.84375 835.625 0
688.875 351.8125 10.46875 0
273.71875 349.75 237.65625 0
789.5 380.65625 890.71875 0
119.65625 742.96875 644 0
915.375 187.40625 548.40625 0
923.625 798.78125 988.34375 0
202.09375 923.15625 816.53125 0
976.25 869.15625 911.6875 0
643.78125 189.90625 631.71875 0
271.34375 256.65625 749.75 0
807 175.03125 731 0
492.46875 83.4375 825.875 0
875.84375 127.625 314.84375 0
587.0625 484.3125 780.3125 0
196.46875 745.21875 1018.875 0
15.71875 663.15625 708.21875 0
178.3125 73.84375 281.5625 0
692.84375 859.03125 570 0
380.125 798.1875 238.09375 0
653.53125 237.21875 209.5 0
994.3125 288.5 23.4375 0
787.65625 155.46875 48.09375 0
9.46875 356.9375 659.3125 0
351.46875 424.5 426.5 0
92.84375 558.25 716.03125 0
346.09375 673.28125 897.25 0
548.3125 583.6875 55.28125 0
476.9375 266.21875 437.03125 0
884.03125 498.25 89.53125 0
579.375 726.40625 797.125 0
884.9375 870.9375 300.03125 0
885.09375 660.375 764.75 0
848.5 783.96875 892.8125 0
930.09375 934.40625 534.46875 0
450.71875 110.21875 362.5 0
842.78125 437.96875 173.90625 0
0.875 673.21875 792.09375 0
65.25 91.96875 394.90625 0
700.28125 826.96875 157.78125 0
146.28125 49.625 354.4375 0
19 1001.875 663.15625 0
54.9375 936.0625 652.75 0
442.0625 21.5625 248.40625 0
401.34375 669.6875 800.625 0
23.375 845.84375 141.75 0
649.46875 563.59375 1007.0625 0
474.53125 219.9375 307.90625 0
800.90625 350.75 492.125 0
622.59375 104.96875 1008.0313 0
773.9375 154.5 467.34375 0
728.6875 1022.6875 794.09375 0
657.03125 636.09375 968.78125 0
704.65625 296.75 580.75 0
297.34375 561.375 729.4375 0
252.34375 559.78125 504.4375 0
974.875 685.875 783.5 0
638.3125 456.4375 817.90625 0
763.40625 1012.625 209.53125 0
644.5625 931.625 605.46875 0
940.40625 517.65625 501.125 0
460.5 910.65625 962.9375 0
187.3125 258 207.875 0
748 963.6875 640.0625 0
42.34375 656.71875 35.34375 0
569.6875 557.53125 457.03125 0
62.84375 1019.9063 130.8125 0
615.3125 51.5625 176.9375 0
676.0625 340.40625 323.53125 0
669.25 420.375 437.75 0
226.9375 694.78125 170.4375 0
509.46875 519.8125 821.96875 0
445.5 4.625 347.625 0
384.90625 131.65625 847.15625 0
750.875 912.5 658.75 0
666.1875 526.8125 751.5625 0
754.84375 980.03125 477 0
371.96875 114.875 926.34375 0
840.90625 465.6875 111.28125 0
890.28125 779.625 40.0625 0
426.65625 958.5625 69.375 0
168.8125 216.34375 119.71875 0
605.28125 121.1875 633.09375 0
594 706.84375 749.09375 0
937.59375 685.78125 305.65625 0
828.25 387.25 1021.4063 0
791.03125 209.3125 174.65625 0
397.5625 185.5625 594.90625 0
200.3125 983.15625 194.8125 0
390.875 311.28125 123.71875 0
202.90625 47.34375 789.65625 0
779.28125 902.15625 1.8125 0
459.375 436.59375 820.75 0
472.40625 506.71875 767.34375 0
244.21875 572.8125 94.96875 0
944.125 915.25 877.5625 0
61.0625 502.65625 647.1875 0
765.125 774.1875 261.875 0
931.71875 810.96875 204.40625 0
566.09375 52.46875 534.6875 0
809.3125 721.03125 24.625 0
749.28125 566.625 936.125 0
896.53125 816.03125 312.75 0
404.40625 493.4375 53.84375 0
667.59375 0.875 787 0
774.3125 225 158.46875 0
58.90625 686.6875 33.46875 0
354.15625 714.59375 817.28125 0
446.71875 1005.25 650.78125 0
302.375 488.40625 895.3125 0
81.1875 103.40625 146.65625 0
146.4375 940 316.125 0
382.78125 833.34375 47.75 0
833.71875 245.75 919.40625 0
262.65625 275.8125 213 0
234.875 866.4375 895.8125 0
908.96875 865.03125 623.875 0
41.875 177.6875 188.15625 0
364.4375 460.03125 189.5 0
915.90625 637.96875 559.4375 0
933.53125 535.125 748.15625 0
1023.2813 992.5625 888.21875 0
860.34375 150.1875 383.375 0
291.1875 175.0625 997.09375 0
759.59375 733.78125 31.625 0
660.5 832.1875 753.5625 0
837.78125 127.625 736.125 0
384.0625 665.40625 937.375 0
911 32.9375 792.03125 0
459.625 7.75 234.09375 0
428.5 160.34375 941.0625 0
513.71875 248.6875 772.5625 0
928.25 218.59375 32.875 0
789.65625 233.71875 569.9375 0
825.71875 872.4375 339.5625 0
551.84375 1015.5625 890.1875 0
662.375 233.1875 832.28125 0
379.9375 375.6875 35.8125 0
574.75 407.40625 122.65625 0
332.71875 920.5625 206.3125 0
962.71875 128.0625 869.6875 0
915.375 456.25 227.4375 0
649.96875 573.5 639 0
433.8125 16.875 884.84375 0
142.96875 273.8125 298.96875 0
698 574.90625 981.8125 0
621.78125 807.125 432.84375 0
838 757.1875 139.03125 0
528.90625 20.5625 7.15625 0
766.25 341.875 923.75 0
473.34375 786.3125 51.71875 0
646.09375 24.75 698.78125 0
992.3125 512.4375 723.3125 0
272.3125 842.0625 662.125 0
611.53125 269.9375 864.46875 0
471.09375 766.09375 360.03125 0
14.84375 487.96875 641.5 0
413.5625 392.8125 28.28125 0
295.75 611.15625 905.0625 0
442.53125 953.875 392.15625 0
545.90625 10.3125 997.59375 0
885.9375 447.90625 716.40625 0
340.9375 616.78125 510.5 0
573.03125 39.9375 387.28125 0
238.625 959.8125 880.125 0
987.21875 623.40625 597.96875 0
78.28125 416.78125 312.625 0
510.53125 81.96875 895.75 0
311.5625 800.25 955.25 0
602.53125 221.40625 286 0
574.15625 895.375 256.0625 0
308.625 744.5625 887.375 0
236.625 195.28125 457.5 0
911.6875 588.09375 29.46875 0
1019.0938 60.65625 634.03125 0
263.09375 173.90625 118.90625 0
237.03125 506.75 982.8125 0
50.46875 81.53125 345.75 0
286.4375 527.90625 502.3125 0
422.15625 946.875 615.46875 0
299.15625 487.15625 411.28125 0
974.125 561.5 854.9375 0
813.46875 820.875 607.0625 0
890.9375 325.6875 961.6875 0
274.34375 965.9375 736 0
130.6875 793.46875 484.21875 0
180.125 27.3125 42.625 0
465.6875 882.96875 139.375 0
14.8125 217.875 838.15625 0
816.3125 798.34375 674.28125 0
305.90625 800.15625 943.59375 0
862.3125 248.4375 510.71875 0
23.5625 77.53125 31.625 0
364.75 732.46875 419.625 0
184.75 305.0625 186.46875 0
762.75 137.96875 59.625 0
538.21875 367.46875 826.0625 0
162.625 921.4375 134.96875 0
29.9375 185.78125 837.6875 0
255.1875 584.375 355.21875 0
552.875 680.84375 891.625 0
954.875 967.9375 107.71875 0
156.90625 571.34375 819.4375 0
916.59375 74.25 893.21875 0
842.125 397.59375 561.9375 0
688.0625 461.75 288.125 0
972.21875 1005.6875 745.5 0
609.0625 278.90625 135.125 0
202.6875 614.90625 499.03125 0
363.84375 235.4375 489.90625 0
708.375 970.875 687.21875 0
1006.125 243.21875 525.875 0
241.46875 919.5625 495.96875 0
334.28125 550.375 584.46875 0
344.59375 356.5 173.28125 0
297.125 224.53125 944.9375 0
757.40625 826.34375 666.03125 0
703.15625 276.5625 785.25 0
65.96875 739.0625 879.65625 0
349.75 45.4375 495.90625 0
21.28125 858.28125 633.34375 0
553.53125 618.53125 582.3125 0
796 655.375 713.4375 0
778.15625 888.8125 161.78125 0
433.65625 805.3125 21.9375 0
448.875 43.15625 518.4375 0
275.71875 69.90625 250.71875 0
1005.5938 518.59375 630.28125 0
72.71875 376.3125 978.4375 0
880.6875 345.5625 247.6875 0
296.46875 52.1875 1016.5 0
176.59375 70.5625 225.40625 0
308.125 805.71875 665.1875 0
85.6875 269.0625 139.75 0
222.75 576.0625 182.53125 0
647.4375 109.46875 464.59375 0
777.03125 341.8125 58.78125 0
289.28125 710.9375 894.1875 0
581.1875 889.3125 83.15625 0
814.46875 1023.625 650.21875 0
633.6875 609.03125 607.34375 0
198.90625 1002.3438 237.0625 0
43.3125 244.78125 261.25 0
416.5625 814 279 0
921.625 388.53125 745 0
211.4375 54.21875 619.0625 0
362.46875 369.90625 684.125 0
999.4375 229 917.25 0
355.28125 976.375 681.0625 0
206.5 289.125 363.96875 0
544.75 297.96875 225.25 0
102 109.28125 726.34375 0
864.03125 687.96875 838.78125 0
5.90625 503.125 619.125 0
957.75 297.59375 620.34375 0
764.8125 894.78125 934.09375 0
850 620.4375 312.1875 0
803.03125 153.71875 555.625 0
705.5625 404.09375 1017 0
104.375 421.46875 28.09375 0
703.90625 265.09375 173.0625 0
234.125 193.53125 882.875 0
781.59375 48.75 494.8125 0
57.5 984.28125 87.03125 0
579.03125 985.625 587.65625 0
899.71875 418.5 412.8125 0
423.40625 674.3125 843.09375 0
967.84375 289.90625 2.28125 0
631.03125 50.625 671.78125 0
432.0625 977.375 618.4375 0
205.6875 424.3125 348.71875 0
638.0625 827.78125 4.96875 0
107.78125 403.875 283.5 0
324.375 844 873.96875 0
319 202.40625 578.21875 0
480.3125 1018.9688 443.625 0
377.3125 428.8125 394.09375 0
594.34375 898.78125 345.5 0
402.8125 973.84375 521.34375 0
